ply
format ascii 1.0
element vertex 942
property float x
property float y
property float z
property float nx
property float ny
property float nz
end_header
486.59 -0.625555 -473.916 -0.0452608 -0.00211486 0.472
485.028 -1.10479 -474.933 0.0044102 0.0734616 -0.008
487.043 -1.16286 -474.113 -0.0221552 0.0172332 -0.126
486.067 1.14426 -471.336 0.75925 1.62292 -0.992
485.379 0.0160337 -474.553 0.243102 -0.132709 0.736
486.655 -1.64572 -474.759 -0.042483 -0.0131958 0.048
486.651 -1.65008 -474.787 -0.0222674 0.0010684 0.112
486.368 0.816105 -472.509 -0.0330444 0.108892 0.362
486.31 0.261554 -472.656 0.0713518 0.507902 0.426
486.437 0.228777 -474.49 -0.0438716 0.0668041 0.25
486.309 0.260859 -472.656 0.0642622 0.509696 0.47
485.979 -0.00281831 -474.729 -0.0262068 0.0803169 0.08
484.792 0.715092 -473.313 1.42778 -0.18984 -0.162
484.824 0.654699 -473.357 1.28477 0.0498895 0.056
485.889 0.64357 -474.019 -0.257314 -0.337895 0.262
485.825 0.544318 -474.004 -0.0075628 0.0617967 0.208
486.053 0.106472 -473.32 1.19447 -0.240102 0.406
487.283 0.0109026 -473.457 -0.712338 1.56583 0.066
486.766 -0.686992 -474.029 -0.0179482 0.0199056 0.084
485.417 -0.678341 -474.529 0.011263 0.0612975 -0.084
486.766 -0.689374 -474.168 -0.0093836 0.0567344 0.518
485.505 -0.872543 -473.983 -0.0096882 0.033654 -0.004
486.692 1.10829 -473.212 -0.023002 0.118102 0.106
487.161 0.592845 -474.324 0.0296392 -0.0471654 -0.118
486.926 0.373173 -474.568 0.926775 0.816543 1.322
484.253 -0.338104 -473.543 -0.0089678 0.0285042 -0.05
484.244 -0.334386 -473.453 -0.0020206 0.0108592 -0.012
485.591 -0.608094 -473.287 0.0133232 0.0127957 -0.216
485.593 -0.613462 -473.342 -0.0006086 0.0343756 0.03
485.467 -0.638144 -473.684 -0.0030654 0.0371272 0.052
486.914 -0.787645 -474.209 -0.0301874 0.045051 0.062
486.775 -0.967944 -474.59 0.538925 0.754261 1.448
486.248 -1.55684 -472.88 -0.0232668 -0.0095494 0.082
484.996 0.877186 -473.305 0.0003988 0.0950992 0.024
486.403 0.0736301 -472.937 -0.0039154 0.0732331 0.19
486.406 0.0736535 -472.952 -0.00074 0.0829564 0.244
486.828 0.106089 -474.921 -0.0241066 0.034604 0.234
486.684 -0.364043 -471.599 0.49039 -0.824502 0
486.49 -0.0970902 -474.863 -0.024623 0.076539 0.092
484.976 -0.507534 -473.885 -0.0011026 0.0413994 0.244
485.256 -0.564131 -474.303 -0.326633 -0.0451946 -0.06
486.865 -0.737818 -473.438 -0.0269412 0.02532 0.024
486.862 -0.740233 -473.423 -0.0189538 0.026023 -0.086
486.455 1.21848 -474.813 -0.874095 -0.220279 1.89
486.251 0.563179 -472.199 -0.021235 0.0863791 0.35
486.523 0.572149 -473.749 0.458236 -0.676153 0.424
486.515 0.564411 -473.627 0.507203 -0.634784 0.092
486.42 0.198142 -473.717 -0.028474 0.0901563 0.35
486.424 0.202102 -473.735 -0.0472526 0.0686873 0.398
486.432 0.199075 -473.803 -0.0265008 0.0770737 0.322
486.613 -1.19369 -474.137 -0.0263168 0.030037 0.048
486.614 -1.2001 -474.143 -0.0352804 0.0190958 0.356
484.952 -1.79302 -474.429 -0.0127478 0.0100358 0
486.677 0.599707 -472.813 1.79819 -0.664371 -0.096
486.688 0.596848 -472.938 1.78142 -0.70182 -0.134
486.215 0.986548 -474.048 0.899247 0.604065 0.406
483.799 0.86087 -474.584 0.0675632 0.0668051 -0.31
483.745 0.743731 -474.809 0.062822 0.0681558 0.168
485.304 0.714452 -474.913 -0.052108 0.118959 0.168
485.975 0.387817 -472.538 1.95759 -0.611065 -0.082
487.237 0.460391 -472.889 -0.414611 -0.0516126 0.164
484.59 0.403585 -473.384 -0.025967 0.0782221 0.066
484.593 0.395335 -473.464 -0.0254374 0.0704755 0.062
486.441 0.233623 -472.195 -0.0325856 0.0425474 0.438
485.006 0.230626 -474.27 0.0304398 0.0784073 -0.096
486.104 -0.0032988 -473.671 -0.0132244 0.100191 -0.242
483.572 0.00275831 -474.824 0.0227572 0.0272531 0.228
487.107 -0.407923 -474.151 -0.0672348 0.0598926 0.206
486.53 -1.64289 -474.856 -0.0250104 -0.01003 0.196
486.529 -1.64665 -474.879 -0.0208712 -0.002486 0.232
485.462 0.901892 -472.082 0.0021308 0.045124 0.04
486.831 0.935731 -471.894 -0.0485966 0.116538 -0.11
486.831 0.88711 -471.76 -0.0360338 0.324086 -0.594
484.726 0.815163 -472.973 0.0978994 0.0449191 -0.47
485.905 0.758589 -472.365 -0.0030792 0.0676444 0.14
485.443 -0.47307 -473.824 -0.0040094 0.0193479 -0.13
486.364 -0.72576 -473.493 -0.0022478 0.0448706 -0.074
484.907 -1.68581 -474.406 0.000157 0.0070936 0.166
486.295 -1.80296 -474.668 0.0066502 0.0121166 -0.134
485.83 1.27208 -471.85 0.100388 -0.0523984 -0.32
485.366 1.15042 -474.779 0.0174184 0.0922544 0.214
483.964 0.77388 -474.223 0.0373266 0.0521816 0.05
487.128 0.642229 -472.368 -0.006328 0.0722977 0.354
487.105 0.618805 -472.168 0.001132 0.13114 0.322
485.591 0.515038 -472.042 -0.0226888 0.0416792 0.34
485.426 -0.135903 -473.474 -0.0125068 0.05842 0.142
483.702 -0.645209 -473.886 0.0588508 0.03431 -0.548
486.535 -0.945796 -472.81 -0.06152 0.0100308 -0.062
486.537 -0.947237 -472.83 -0.059556 0.00542658 -0.1
485.164 1.28402 -474.636 -0.0863968 0.0899988 0.36
486.138 0.739984 -471.335 -0.0732692 0.0692344 -0.056
483.89 0.68434 -472.596 0.0615082 0.0658061 -0.05
486.629 0.740647 -474.929 -0.02227 0.0651042 0.304
484.434 -0.335557 -474.909 0.0980526 0.0733174 -0.35
483.583 -0.656999 -474.652 -0.0138366 0.00959352 0.214
484.433 -1.38128 -474.198 0.227719 -0.336951 0.148
484.49 -1.47221 -474.154 0.0035418 0.0448144 0.016
484.851 -1.57196 -474.187 0.007856 -0.0043224 -0.056
486.151 -1.61497 -474.361 -0.0355834 0.013804 0.358
484.849 -1.77807 -474.446 0.0015338 0.015285 0.204
486.301 1.1947 -472.325 0.028699 0.0420638 1.096
485.464 0.907893 -471.475 -0.0647524 0.0147578 0.1
485.762 0.761813 -473.938 0.064548 1.38322 -0.206
486.997 0.21552 -473.323 -0.381954 0.00776016 0.712
484.494 0.118376 -474.842 -0.005722 0.0566262 -0.08
484.482 0.11215 -474.779 0.0119546 0.094114 -0.122
485.424 1.1348 -471.848 -0.0823986 -0.0868574 1.28
486.264 1.27377 -474.25 -0.0275654 0.0910192 0.074
485.915 1.21443 -473.997 1.33236 0.349803 -0.788
485.916 1.22552 -473.851 1.34402 0.334269 -0.938
487.164 0.176871 -474.379 0.179876 0.044153 -0.368
483.839 -0.547015 -474.408 0.0088696 0.0348222 0.082
483.846 -0.548489 -474.444 0.0102754 0.0298826 0.056
485.682 -1.49892 -474.94 -0.0040794 0.0447768 -0.066
483.756 -2.43573 -473.593 -0.0505002 0.0152968 0.176
484.759 1.2629 -474.03 -0.0365914 0.20707 0.128
483.742 0.637077 -473.19 0.0111598 0.0312569 -0.164
486.907 0.629132 -473.595 -0.037033 0.0914484 0.136
484.875 0.894451 -474.214 -0.470889 1.54917 0.804
484.883 0.901044 -474.26 -0.509456 1.55065 1.3
484.062 -0.880549 -474.505 0.0066942 0.0395286 0.114
487.067 -1.16733 -473.867 -0.0205418 0.0176104 0.064
484.774 -1.57385 -474.344 0.016494 -0.0069986 -0.246
486.615 1.24992 -472.496 -0.0430424 0.0903012 0.072
486.236 1.19959 -474.611 -0.0066208 0.101298 -0.23
485.541 -1.79282 -474.51 0.0045048 0.0098274 -0.152
487.248 1.2488 -472.046 1.45969 -0.0237104 -0.428
486.485 0.747646 -472.894 -0.065473 0.0621653 0.402
485.767 0.692874 -472.539 0.007316 0.100681 0.044
486.971 0.685776 -473.045 -0.0521966 0.0709998 0.09
486.979 0.688222 -473.048 -0.0246696 0.0875438 0.208
486.605 0.212575 -471.682 -0.0157704 0.050236 0.06
483.946 0.0424889 -473.483 -0.0224768 0.0338054 0.21
485.274 -0.509734 -473.974 -0.0120498 0.0615467 0.018
483.761 -0.614062 -474.52 -0.0079892 0.0274555 -0.012
485.831 -0.839815 -473.486 0.0198276 0.00113224 -0.07
484.414 -0.964526 -473.714 -0.013096 0.0206939 -0.01
484.708 -1.3557 -474.111 -0.0145704 0.015004 0.024
485.471 -1.63424 -474.351 0.00498 -0.0095456 -0.046
486.582 0.79905 -472.499 0.0056088 0.121651 -0.396
483.679 0.127126 -474.425 0.0121188 0.0491775 0.196
486.684 -0.401473 -472.587 -0.0307074 0.00103376 0.082
486.681 -0.400857 -472.674 0.010872 0.0431459 -0.08
487.18 -0.150224 -472.543 -0.0161668 0.0639374 0.174
487.294 -0.721055 -473.442 -0.0430062 -0.0211461 -0.058
485.801 -1.78352 -472.525 0.0034552 -9.64e-05 0.5
484.103 0.464281 -473.538 0.0368112 0.0795373 -0.234
487.26 0.314491 -474.194 -0.0312772 -0.0034606 -0.02
487.186 0.349932 -474.292 -0.0373732 0.0513289 0.116
487.278 0.296038 -474.306 0.0468484 0.0585617 -0.06
485.365 1.19044 -472.182 0.0140122 0.0657188 0.28
487.185 1.02608 -472.748 -0.3582 0.0104982 -0.18
486.899 0.777485 -473.357 0.001509 -0.0403746 -0.488
486.937 0.753311 -473.465 0.0577562 0.0018783 -0.26
487.118 0.806919 -474.024 -0.721713 -0.0402653 1.702
487.116 0.808471 -474.283 -0.797738 -0.0601503 1.518
485.462 0.750913 -473.176 -0.0110428 0.0830068 0.358
484.773 0.482478 -474.474 0.0225412 0.0873168 0.218
485.89 -0.127641 -473.531 -0.0031482 0.00430598 -0.124
486.113 -0.307172 -474.135 -0.0295094 0.0524374 0.12
486.565 -0.797234 -474.768 -0.0749726 -0.00975746 0.408
486.568 -0.797954 -474.915 -0.0550498 0.0358848 0.292
483.651 -1.29625 -473.026 0.066152 -0.0750834 0.338
483.67 -1.30664 -472.817 -0.0437702 0.0157284 -0.06
483.663 -1.3105 -472.812 -0.0221742 0.0473552 0.062
484.032 -1.60351 -474.892 -0.0223164 0.0431386 0.17
483.778 -2.20277 -474.556 -0.0529748 0.0179534 0.1
484.37 1.1598 -473.295 0.0387016 0.0598658 0.042
485.674 0.478516 -474.692 -0.0036048 0.0755821 0.084
483.573 0.260559 -473.897 -0.0042572 0.0318554 -0.106
485.807 -0.00396139 -472.615 0.0186292 -0.00194957 0.018
485.799 0.00559214 -472.521 -0.0267962 0.0231338 0.202
485.993 -1.87263 -474.737 -0.016357 0.0037694 -0.044
487.191 0.611891 -474.019 -0.0206078 0.0227696 0.306
487.179 0.609139 -473.969 -0.0079182 0.0190091 0.21
487.183 0.610022 -473.985 0.0016106 0.0246093 0.186
486.097 0.372656 -473.132 0.016354 0.0901807 0.066
486.102 0.370631 -473.163 -0.0166966 0.0783556 0.096
486.092 0.152455 -473.618 0.131602 -0.704927 0.382
486.098 0.368029 -473.108 -0.0161808 0.0998682 -0.012
486.135 -0.0384129 -473.623 -0.022625 0.0493498 0.29
485.958 -0.0786664 -474.849 -0.051648 0.0544237 0.006
484.55 -0.301357 -473.534 -0.0047848 0.0133701 -0.048
485.79 -0.409205 -474.323 -0.153104 -0.358145 0.364
485.825 -0.306591 -474.469 -0.0179348 0.0568511 -0.182
483.568 -0.833235 -474.467 0.030236 0.0305918 -0.156
487.283 0.811369 -472.476 -0.0690954 0.142044 0.078
487.291 0.805686 -472.343 -0.0638276 0.0979114 0.392
487.296 0.791303 -472.456 -0.064126 0.095952 0.132
485.437 0.427286 -473.998 1.01147 -0.83661 -0.042
486.001 0.497065 -472.995 -0.0202322 0.0783341 0.19
485.687 0.172362 -473.909 0.0149458 0.0903382 -0.11
486.896 -0.188849 -473.993 -0.0774708 0.00058758 0.158
487.111 -0.340485 -472.615 0.0335314 0.00950892 0.86
487.094 -0.370565 -472.013 0.0277732 6.92e-06 -0.272
487.317 -0.255141 -473.755 -0.04167 0.0325615 0.19
487.11 -0.374214 -472.238 0.001245 0.0346022 0.038
486.334 -0.974648 -474.223 -0.012515 0.039215 0.106
485.283 -1.00579 -473.802 0.009923 0.0022736 0.108
485.028 -1.7048 -473.546 0.90927 1.20171 -0.086
484.077 1.22347 -473.385 0.010661 0.0542726 0.05
485.919 1.12456 -472.276 -0.037328 0.108188 0.216
485.794 0.603111 -473.053 0.723913 0.795563 0.948
486.635 0.640707 -473 -0.116707 1.48729 1.602
483.926 -0.89194 -472.197 -0.0135688 0.0220411 0.018
487.21 -1.46498 -474.42 -0.0276362 0.024422 -0.026
485.911 1.22618 -474.113 -0.0558126 -0.076458 -0.508
485.64 1.00847 -472.615 0.0852516 0.0175894 -0.434
486.431 0.868977 -472.409 -0.0232374 0.133506 0.296
486.073 -0.355172 -473.419 -0.001246 0.0542639 -0.092
486.755 1.03126 -474.363 -0.032048 0.0772034 0.148
486.969 -1.15835 -473.872 -0.0132264 0.0278146 0.108
486.975 -1.16042 -473.929 -0.0028534 0.0380468 0.204
485.736 -1.42938 -474.248 0.0261292 0.0418614 0.094
483.673 0.773491 -472.458 0.020169 0.038028 -0.024
487.003 0.176027 -473.294 0.779822 0.797815 0.296
484.561 -0.235921 -474.065 -0.0031896 0.0417962 -0.128
485.275 -0.570362 -473.421 -0.011374 0.0152096 0.008
485.613 -0.923038 -474.54 -0.029647 -0.0012995 0.36
486.866 -0.9845 -473.573 -0.0179482 0.0327675 0.088
484.271 -2.35583 -474.869 -0.0244782 0.0114228 0.024
486.085 0.987216 -474.45 0.83139 0.0234951 0.39
487.071 1.01592 -474.401 -0.139979 0.122266 0.376
484.159 0.944353 -474.904 -0.241753 0.180585 -0.75
487.249 0.758771 -474.327 -0.0860412 0.0927048 0.404
485.423 0.582942 -473.179 0.0026258 0.0955449 0.152
485.647 -1.23025 -473.801 0.0052352 0.033344 0.22
485.899 -1.35276 -474.221 0.0281952 0.051281 -0.244
485.896 -1.35246 -474.209 0.0266478 0.0551178 -0.212
485.324 1.20527 -473.469 -0.301712 0.0523882 0.39
485.318 1.21352 -473.403 -0.29307 0.0241462 0.24
485.331 1.21781 -473.491 -0.332354 -0.0008276 0.484
484.249 1.07792 -473.318 0.0261836 0.0704024 -0.122
486.363 1.01788 -471.654 -0.0609094 0.0962248 0.274
485.519 1.03256 -473.69 -0.0258412 0.111823 0.2
484.027 0.695463 -474.539 0.0201356 0.0607832 0.072
484.026 0.684857 -474.613 0.0124052 0.0681001 0.146
487.188 0.508104 -472.322 -0.0640542 0.110276 0
484.825 -0.11452 -473.195 0.0148068 0.0164857 0.13
487.149 -0.220292 -471.476 -0.0233584 0.0248582 0.11
485.633 -1.11747 -473.782 -0.0112606 0.0336772 0.324
485.825 -1.16744 -474.197 -0.0104448 0.0302872 0.002
484.874 0.0177506 -473.015 0.011702 -0.000325068 0.126
484.989 1.20814 -472.305 -0.0153428 0.008697 0.162
485.655 1.2912 -472.296 0.0077322 0.0664494 0.168
486.118 1.11989 -474.192 -0.0432426 0.0559654 0.398
485.384 0.874196 -473.377 0.0081512 0.10949 -0.008
486.373 0.706438 -472.297 -0.0134432 0.0645409 0.604
486.337 -0.447692 -472.714 0.0115068 0.03462 0.342
486.516 0.625238 -474.416 -0.0198406 0.0377578 0.1
487.269 0.292507 -474.663 0.140691 0.112376 0.948
486.415 0.0696953 -471.844 -0.0174978 0.0616167 0.018
487.111 -0.0105934 -473.86 -0.140654 0.0529302 0.908
487.099 -0.0147659 -473.75 -0.103237 0.0757164 0.538
487.117 -0.0121775 -473.899 -0.1473 0.0522641 0.93
487.3 -0.745007 -473.4 -0.0319674 0.0366068 0.072
485.563 -0.725116 -473.312 -0.0107228 0.0278638 -0.022
486.931 0.825558 -474.342 0.0251914 -0.0429501 1.368
486.98 0.774074 -473.547 -0.0636186 -0.0271426 0.016
486.864 0.759023 -473.398 0.378333 0.0454575 -0.392
486.942 0.830181 -474.084 0.259946 0.0692534 1.154
486.816 0.471721 -472.82 -0.0123856 0.104107 -0.242
485.377 0.0899081 -474.777 -0.0100228 0.094905 -0.44
485.145 -1.62039 -474.864 -0.015741 0.027247 0.12
486.546 1.07704 -471.793 -0.0404016 0.0972742 0.062
486.55 1.07796 -471.812 -0.04398 0.109023 0.126
487.192 0.996488 -472.407 0.0433612 0.0303315 0.228
486.038 0.752261 -471.822 -0.0193364 0.0802013 -0.118
485.046 0.624445 -472.502 0.0164874 -0.0014257 0.06
485.323 0.65776 -474.18 -0.0607228 0.104325 0.122
485.265 0.612318 -473.4 0.0170238 0.0841558 -0.012
484.754 -1.58559 -472.011 -0.038609 0.0141386 -0.048
485.401 -1.41077 -474.875 -0.0782288 0.085067 -0.746
485.055 -1.44494 -474.776 0.0157458 0.0230828 -0.352
487.272 0.879542 -469.847 -0.0417908 0.0344123 0.472
486.812 0.788826 -469.481 -0.0252782 0.0166208 -0.074
486.536 1.18356 -471.05 -0.0382846 0.0745958 -0.056
486.746 0.616607 -468.19 0.0813088 -0.627868 -0.532
485.484 0.839638 -471.247 0.67594 1.72018 -0.356
483.565 -1.41451 -470.561 -0.0264838 0.0213716 -0.004
483.553 -1.42295 -470.759 0.0171308 -0.0326416 -0.116
486.397 1.26319 -470.923 -0.473978 -0.0856752 0.894
486.397 1.26173 -470.933 -0.469613 -0.0839092 0.89
485.29 -1.11626 -470.421 -0.0564266 -0.0199514 -0.062
486.68 0.886145 -468.425 0.279712 0.231204 0.07
486.279 0.521893 -470.741 -0.044009 0.0405666 0.384
486.182 0.68757 -470.595 -0.0167534 0.0117527 0
486.172 0.688183 -470.468 0.0232274 0.0665178 0.072
486.737 0.525526 -468.654 -0.0417636 0.0150943 0.098
486.034 0.406942 -471.278 0.0060686 0.0475998 -0.096
486.843 0.917367 -468.144 -0.0055898 -0.0104517 -0.09
487.263 0.49419 -471.118 -0.0382998 0.0571223 0.018
486.446 1.10054 -469.901 1.36506 0.595481 0.738
486.439 1.10043 -469.862 1.36161 0.605956 0.78
486.748 0.78163 -470.394 -0.0171278 0.0353297 -0.374
487.223 1.08461 -469.752 -0.0456164 0.0828312 0.254
486.858 0.732197 -470.918 -0.03326 0.0641115 0.12
487.101 -0.744877 -470.574 -0.0043986 0.00357238 0.1
487.135 0.487697 -470.335 -0.447046 -0.556592 -0.22
485.941 -1.34407 -469.382 0.004669 -0.0380164 -0.154
486.293 0.63072 -470.993 0.0021804 -0.100509 0.048
487.019 0.916415 -469.519 -0.0150244 0.041331 -0.07
487.021 0.918097 -469.531 -0.0465752 0.0726937 0.196
487.014 0.911178 -469.507 -0.0222438 0.050644 0.142
487.112 -0.603285 -467.959 -0.0015064 0.0077737 0.098
486.497 0.877529 -468.841 -0.0108818 0.0864433 0.218
486.156 0.396247 -470.832 1.66095 0.268195 1.956
486.348 -1.84805 -467.722 -0.0179664 0.0019498 -0.272
486.972 0.0784359 -471.262 -0.0309868 0.00665859 0.054
486.262 -0.488174 -471.192 -0.0134986 0.0295627 0.114
485.187 -2.12185 -470.579 -0.0551096 -0.0295552 -0.234
486.549 1.25974 -468.055 -0.0074526 0.0208812 0.016
487.02 1.0476 -468.879 -0.0177216 0.014837 -0.172
486.653 0.962663 -469.163 1.49614 0.387915 0.316
486.673 0.977313 -470.947 0.890299 0.709794 -0.748
487.094 1.2462 -470.193 -0.0446998 0.0500086 0.218
487.027 -0.607432 -467.704 -0.099541 0.0280551 0.142
486.619 0.616367 -470.258 -0.0378718 0.0262663 0.132
485.243 -1.53042 -468.76 -0.0485598 0.0225106 0.174
486.558 0.395327 -470.132 -0.0251292 0.00365598 0.114
486.404 1.03096 -469.684 0.0095122 0.0611652 -0.192
487.303 0.637697 -469.682 0.0677126 0.0614438 0.012
487.066 0.244092 -467.962 -0.335086 0.528272 0.41
486.265 0.022413 -470.921 0.770764 0.472326 -0.982
486.281 1.26485 -469.435 -0.0398866 0.0255424 0.248
487.173 0.844175 -468.707 -0.0507378 0.0433989 0.23
487.193 0.80007 -469.057 0.0440828 -0.0126399 -0.452
487.224 0.860803 -469.213 -0.0337158 0.0227232 -0.016
487.059 0.840065 -468.711 0.405421 0.0491346 0.212
487.118 0.928209 -470.596 -0.0547072 0.0159451 0.436
487.198 0.775762 -469.363 -0.0534884 -0.0385703 0.332
487.091 0.92236 -469.13 0.0156888 -0.0031538 0.01
487.225 0.866748 -470.507 -0.0284644 0.0498378 0.208
486.856 0.557594 -468.355 0.625212 1.25972 -0.824
485.43 -1.25265 -471.123 -0.0189408 0.0291074 -0.19
486.898 1.21368 -468.431 -0.0095636 0.0204874 -0.112
486.261 0.778917 -471.322 -0.0147076 0.065933 -0.124
486.131 1.1549 -470.974 -0.437466 0.288697 0.562
484.986 -0.24299 -470.462 0.007776 0.0180918 -0.182
484.995 -0.238513 -470.616 -0.0240318 0.0487206 0.206
486.965 -1.26099 -471.25 -0.0432484 -0.0298756 0.006
487.254 0.780554 -468.974 -0.0052148 0.00174768 0.008
486.599 0.69716 -470.406 -0.0205114 0.0495273 0.15
486.129 1.05405 -470.465 1.17943 -0.362963 0.536
486.984 0.901152 -470.64 0.359666 -0.652112 -0.366
487.191 0.881945 -468.748 0.012001 0.00205004 -0.11
487.006 1.19939 -467.889 -0.0252066 -0.0018296 0.154
487.049 1.07228 -468.47 -0.003308 0.0208886 -0.056
487.052 1.07342 -468.476 -0.0064178 0.0341326 0.05
486.576 -1.9192 -470.079 -0.0388846 -0.0055916 0.28
485.928 0.449981 -471.014 -0.011268 0.0385761 -0.114
485.933 0.452484 -471.036 -0.0231714 0.0384337 -0.156
486.588 -0.976362 -469.32 -0.0032548 -0.0643405 0.112
485.628 1.17622 -470.827 0.0951564 0.0673952 0.102
485.685 1.19786 -471.295 0.0519862 0.113035 -0.196
485.633 1.16519 -470.894 -0.0210572 0.0327946 0.038
485.64 1.16807 -471.041 -0.024312 0.013371 0.48
487.017 0.393615 -471.275 0.565288 0.0341254 0.08
486.931 0.89197 -470.799 0.0309434 0.453361 -0.196
486.912 0.782364 -471.054 0.003649 0.192642 0.008
486.902 0.769554 -470.854 -0.014632 0.0543228 -0.122
486.943 0.522278 -470.094 0.0329442 0.0678964 -0.134
486.979 0.833782 -469.191 -0.0274764 0.017816 0.04
486.736 1.20129 -468.646 0.0124466 0.029686 -0.308
484.725 -2.09007 -468.051 -0.0219158 -0.031255 -0.194
486.951 1.28126 -469.404 -0.0413154 0.0218718 0.008
486.966 -1.34947 -468.863 -0.0367956 -0.0393546 0.104
487.006 1.23584 -471.25 -0.0208326 0.0874296 -0.074
487.091 0.924226 -469.69 -0.671177 -0.179931 -0.146
487.088 0.921742 -469.698 -0.697746 -0.165018 0.072
486.161 1.02959 -471.014 -0.0307066 0.075141 -0.022
487.063 0.532078 -470.844 0.501701 -0.219378 -1.022
487.144 -0.937715 -471.176 -0.049619 -0.0475976 -0.034
487.009 0.816479 -470.522 -0.0427776 0.065224 0.202
487.008 0.827424 -470.439 -0.0303644 0.0657721 0.116
484.16 -2.1119 -468.397 -0.0320926 0.0189574 -0.268
486.793 1.21989 -470.001 -0.0522562 0.0287384 0.204
486.787 1.21915 -469.923 -0.0319414 0.0534328 0.094
487.314 1.22246 -467.926 1.27329 1.48863 0.496
486.563 0.908797 -469.305 1.76483 -0.0948796 0.208
486.563 0.915127 -469.33 1.75746 -0.0645638 0.18
487.013 0.880316 -469.149 -0.007969 0.00108292 0.436
486.758 0.611488 -470.637 -0.0612364 0.0457699 0.346
486.171 -0.590204 -469.418 -0.0795458 -0.00232192 -0.47
486.595 -0.723843 -468.589 0.0210262 -0.122035 1.596
483.608 -1.2277 -468.049 -0.0274904 0.0248272 -0.14
486.93 0.906005 -470.772 0.414262 0.241822 -1.06
487.234 0.285615 -470.918 0.0011808 0.0499427 -0.388
487.286 0.362392 -470.791 0.197059 0.334373 -0.142
486.207 -0.111533 -471.149 0.01219 -0.0105395 0.11
486.904 1.13565 -471.077 -0.0271344 0.0688192 0.246
486.9 1.12612 -471.011 -0.0022198 0.129645 0.044
486.89 1.11741 -470.902 0.0154242 0.160396 -0.268
486.758 1.05547 -470.627 0.242636 -0.380862 0.574
486.635 0.790768 -469.877 1.06485 -0.0980573 -0.23
486.905 0.75415 -469.931 -0.0196898 0.050979 0.02
486.897 0.750215 -469.901 -0.0087428 0.0477666 0.064
487.22 0.879246 -468.185 -0.033201 -0.0347112 0.352
487.235 0.592397 -469.372 -0.0454066 -0.00903744 0.208
486.913 0.9291 -471.178 0.841605 0.214444 0.676
485.727 -0.556386 -471.289 0.0524204 -0.0224009 0.486
486.082 -0.277237 -468.094 -0.673977 2.26215 0.022
487.052 0.912405 -470.668 0.0198422 -0.123327 -0.47
487.089 0.379514 -471.043 0.102035 0.0463697 -0.026
487.125 0.374534 -471.311 -0.101352 0.0482908 -0.112
487.059 0.368994 -471.139 -0.007231 0.0353638 -0.118
487.049 0.361357 -471.179 -0.0650406 0.0098664 -0.176
486.121 0.815656 -468.815 -0.018138 0.033351 0.022
486.883 0.702845 -470.538 -0.0365772 0.0526188 0.122
486.86 0.691202 -470.74 -0.087709 0.016933 0.158
486.861 0.683514 -470.701 0.0338076 0.0818282 0.196
484.4 0.418986 -470.599 0.0342454 -0.022506 0.392
485.141 -0.929577 -470.982 -0.0289752 -0.00018774 0.176
486.72 1.09699 -469.852 -0.185453 0.0365342 -0.412
486.693 1.08933 -470.07 -0.0263304 0.108594 -0.014
486.689 1.06305 -470.271 0.0153102 0.168153 0.412
486.039 0.910981 -470.647 -0.037267 0.0541521 0.028
486.819 1.18182 -468.087 -0.0265662 -0.0066586 0.114
485.836 1.19499 -469.882 0.0341598 0.130107 -0.718
485.979 1.1091 -470.976 -0.449944 0.503933 0.106
486.821 0.203243 -470.908 1.81064 1.47001 0.798
485.916 -0.450926 -468.022 -0.0173198 0.0269278 0.094
486.364 -0.761936 -470.389 -0.020772 0.0284104 0.478
486.872 -1.09663 -467.713 -0.0618312 -0.0163716 -0.036
486.973 1.22227 -469.817 -0.0243772 0.0524742 -0.086
486.996 1.15758 -468.103 0.825813 0.251934 -0.634
486.581 0.999206 -470.829 -0.426711 0.173098 1.958
486.017 1.08026 -471.162 0.975181 -0.108154 -1.148
486.018 1.08186 -471.153 0.972569 -0.110403 -1.152
486.94 0.969415 -469.358 -0.034455 0.0605862 0.028
486.912 1.16747 -468.999 0.436812 -0.021007 -0.312
486.99 1.04043 -470.604 0.243969 -0.368842 0.34
485.345 0.838985 -468.665 -0.0567312 0.162869 -0.264
485.349 0.822946 -468.933 -0.0926778 0.219629 0.188
484.25 -1.63557 -470.454 0.0044494 0.0571424 0.468
486.357 1.26539 -471.025 -0.0613184 0.136096 0.256
486.355 1.27063 -470.976 -0.0479872 0.109448 -0.002
483.884 -1.86019 -470.7 -0.0179308 0.0161328 0.11
485.568 1.24565 -471.144 -0.0161684 0.0733866 0.026
487.09 0.786103 -468.762 -0.0079302 0.0394081 -0.178
487.028 -0.108139 -467.923 -0.0224802 -0.00555504 -0.086
486.744 -0.634802 -470.988 -0.0374962 -0.0846338 -0.846
485.973 -1.35252 -468.352 -0.0172154 -0.0782456 -0.428
486.691 0.55535 -469.942 0.398408 -0.0914787 0.254
486.691 0.559269 -469.957 0.397949 -0.0670495 0.27
486.808 0.208429 -468.185 -0.0001138 -0.0221821 -0.678
486.964 1.22713 -468.342 0.211181 0.881746 1.88
486.482 1.06426 -470.507 -0.0306842 0.0702666 -0.158
486.493 1.05821 -470.602 -0.0376334 0.072448 -0.124
487.282 1.119 -468.115 1.98941 -0.0131296 1.318
486.069 0.654319 -470.771 -0.354657 -0.146901 -0.082
484.861 -1.25073 -469.723 -0.0398344 -0.0183474 -0.3
487.04 1.25699 -468.519 -0.0004794 0.0327732 -0.322
485.908 1.23727 -470.308 -0.015459 0.0483256 -0.234
486.458 0.934719 -467.94 1.65078 0.349587 -1.122
486.518 0.928264 -470.074 -0.0148226 0.025149 0.39
486.519 0.927779 -470.081 -0.0193732 0.0259718 0.416
487.133 -0.616529 -469.716 1.70038 1.92027 0.626
487.132 -0.615986 -469.699 1.6787 1.91403 0.608
486.457 -2.07496 -470.262 -0.010067 0.018181 -0.008
486.88 1.25736 -468.49 0.364065 0.140313 0.148
483.61 0.274255 -468.77 0.0452022 0.050955 -0.088
487.034 1.15294 -471.02 2.09195 -0.0255918 0.496
485.526 0.950792 -471.24 -0.0158646 0.0327917 0.156
485.527 0.95232 -471.231 -0.0127666 0.0317885 0.136
486.545 0.628825 -470.5 -0.035806 0.030252 -0.398
486.328 0.449031 -470.913 -0.309289 1.9209 0.268
486.738 1.09724 -470.063 -0.0210934 0.042872 0.472
486.513 0.516681 -470.339 0.0070306 0.0531698 0.07
485.757 -0.894174 -471.319 -0.0353918 0.0330864 0.388
486.283 1.17908 -471.077 0.22027 0.371572 -0.246
487.074 -0.0723665 -471.278 0.018881 0.0247984 -0.168
487.074 -0.0710022 -471.27 0.0169298 0.0229095 -0.172
486.327 0.899909 -469.801 0.0405272 0.050755 -0.22
486.966 0.265862 -470.683 -0.0277364 0.884146 1.418
484.924 -0.338204 -468.599 -0.0125272 -0.0100014 0
486.747 0.851271 -470.727 0.27188 0.310605 0.228
486.886 0.184777 -470.798 -0.0387304 -0.00843036 0.456
486.909 -2.0794 -471.316 -0.0470268 -0.0088886 -0.076
487.167 1.20501 -468.568 -0.011737 0.0291788 -0.06
487.062 -1.25563 -465.834 -0.0309842 -0.0257576 0.05
487.284 0.957359 -465.633 -0.0118688 0.0262727 0.34
486.398 0.38544 -465.445 3.49886 2.31775 -0.246
486.234 -0.754408 -466.012 -0.0295848 0.054986 -0.148
483.85 -0.602136 -464.605 0.0111636 0.011381 -0.116
484.253 0.324391 -466.763 0.0138818 0.0447306 -0.168
485.608 -0.861489 -464.144 -0.016136 0.106782 -0.058
485.614 -0.885558 -464.252 0.0032098 0.0546997 -0.044
483.868 -0.665564 -466.225 0.0130786 -0.00353476 -0.092
486.369 0.560828 -465.174 0.412601 -0.0202466 0.22
485.868 -2.17456 -465.4 0.0017632 0.0075052 0
487.142 -0.569242 -466.295 -0.0258218 0.0555095 0.348
485.171 -0.144476 -465.006 2.45506 -0.238705 0.492
484.215 0.242628 -465.498 0.0179148 -0.0411895 0.048
483.925 1.1276 -465.721 0.0396954 0.0335258 0.03
486.846 0.394473 -464.865 0.0154016 0.105227 0.168
485.424 -0.915775 -467.341 -0.0704064 0.0744637 0.518
487.019 -0.601884 -467.636 -0.0892778 0.0296769 0.14
486.68 0.80053 -466.722 0.115015 -0.337196 0.02
486.726 0.708816 -466.764 -0.0552952 0.0134466 0.018
486.388 0.484997 -464.554 0.8809 2.77627 1.772
484.478 0.490232 -464.788 0.020957 -0.00833152 -0.078
485.018 0.096956 -465.766 0.0131216 0.0252362 -0.132
485.021 0.0954076 -465.791 0.015538 0.0234303 -0.154
486.859 0.00900328 -466.734 -0.263079 0.158143 0.364
487.178 1.03143 -466.185 0.0036632 -0.027565 -0.008
486.282 1.05385 -467.052 -0.0225156 0.0274546 -0.072
486.368 -0.548483 -464.094 -0.022585 -0.0401915 -0.47
486.703 -0.384981 -466.87 -0.0411996 -0.0290358 -0.384
485.253 -0.76643 -466.3 -0.352274 -0.0140284 -0.266
486.112 -0.845377 -465.847 -0.0237174 -0.0220855 -0.14
485.704 0.686995 -465.392 -0.0039454 0.0319052 0.41
485.87 -1.20412 -464.598 -0.039183 -0.0121258 0.234
485.873 -1.20957 -464.632 -0.0464008 -0.0052448 0.25
486.945 1.21555 -467.594 -0.0296502 0.0084228 -0.21
483.71 0.140908 -467.106 0.0225076 0.0595089 0.086
486.143 -0.208769 -467.151 -0.0355258 0.0641383 0.116
487.075 0.3086 -466.952 -5.8e-05 -0.0421437 -0.634
484.928 0.735734 -466.137 0.001109 0.0609953 -0.42
485.923 -0.0964747 -465.491 1.36384 2.17772 1.566
486.908 0.219685 -465.748 -0.0453894 0.0731097 0.394
487.08 0.0700912 -466.598 1.73406 2.96144 0.174
487.277 1.04008 -465.937 0.050201 0.0403232 0.048
487.28 1.03134 -465.809 -0.0376678 0.037403 0.16
486.598 -1.12021 -467.038 -0.0272936 -0.018478 -0.062
484.465 0.573639 -464.104 0.0179684 0.0353918 0.42
486.229 1.19909 -467.596 0.60474 2.23989 0.418
487 0.378815 -466.577 -0.399264 -0.691689 0.286
484.292 -1.48296 -466.13 -0.0103408 -0.0011988 -0.092
487.206 1.0687 -464.948 1.74297 0.0311856 1.06
485.66 -1.5533 -466.695 -0.0101588 0.0274046 0.31
485.722 -1.41216 -464.137 0.0142426 0.0324788 -0.254
486.578 0.244068 -466.619 -0.0311286 0.0703809 1.044
487 0.0297661 -464.943 -0.0303102 0.0250249 1.01
484.634 -2.19778 -464.174 -0.0265576 0.025408 0.1
484.583 1.11684 -467.62 0.0130584 0.0542178 -0.114
486.071 -1.48034 -466.303 -0.041473 0.026663 -0.954
486.303 -1.03018 -464.58 -0.0350396 -0.0055216 -0.056
486.847 0.696975 -467.673 0.0097168 0.0516052 0.29
485.713 -0.0703372 -467.473 -0.0164288 -0.0615194 0.058
484.565 -0.118582 -465.752 0.745358 0.601373 1.84
486.656 -0.657676 -465.334 0.132849 0.0777119 0.43
484.298 -2.22549 -465.589 -0.0081568 0.0280278 0.38
484.846 1.07368 -464.907 -0.234751 0.241258 -0.008
486.405 0.708576 -465.5 -0.0336374 0.0556346 0.398
486.397 0.695575 -465.325 -0.0443084 0.0995205 -0.012
485.849 0.54305 -467.418 0.445374 2.92255 -0.184
485.857 0.556255 -467.5 0.432871 2.9311 0.2
485.86 0.549141 -467.568 0.435886 2.93541 0.24
486.002 -0.381994 -464.6 -0.0224392 0.048065 0.124
485.998 -0.378676 -464.553 -0.031894 0.0576209 0.184
485.124 -1.13023 -467.416 3.7345 2.51216 1.858
486.575 1.1184 -467.121 0.76603 0.879567 -0.34
486.26 -0.370633 -467.599 -0.0561896 0.0495371 0.598
487.265 0.882107 -466.423 -0.0073554 -0.045291 -0.14
487.258 0.877493 -466.366 -0.0071746 -0.0662066 -0.044
486.851 -0.87617 -467.101 -0.0240274 0.0119994 -0.008
486.053 -1.63235 -466.45 -0.226352 -0.113811 0.198
485.116 0.283629 -465.889 0.0343758 -0.0589317 0.07
486.417 0.763883 -464.337 3.55636 0.509956 0.064
483.705 -1.35506 -465.524 -0.0280304 -0.035296 -0.254
485.988 1.14218 -466.649 1.75355 0.449859 1.408
486.603 -0.451747 -464.613 -0.037492 -0.0365727 0.228
487.071 0.779575 -466.736 0.0210616 0.0014104 0.352
486.638 0.350714 -464.325 0.0134496 0.00112964 -0.494
484.902 -0.331351 -465.036 -0.0344008 0.0615246 0.134
485.472 0.0714773 -465.091 0.0031474 0.0487729 -0.062
485.839 -0.5049 -466.772 -0.091297 0.144986 -0.59
485.829 -0.539278 -466.401 0.025767 0.06396 -0.368
485.843 -0.538437 -466.488 0.0100144 0.04604 -0.278
485.589 -0.820863 -460.904 -0.0192834 0.00871452 0.014
484.389 0.660991 -463.985 -0.535799 -0.329776 0.656
485.27 -0.913631 -463.145 -0.057598 0.0228097 0.416
484.522 -0.644684 -461.569 -0.0077246 -0.0602669 0.124
483.632 -1.86465 -463.64 -0.0421972 -0.0400386 0.386
485.605 -0.851389 -464.028 0.0044124 0.121448 0.108
486.915 0.277217 -463.769 0.0519538 -0.0556266 0.186
487.317 1.01861 -463.352 2.39687 -0.302389 0.02
484.146 -0.0744339 -461.553 -0.027961 0.0137239 0.382
486.537 0.39268 -462.757 2.39936 -0.705527 -0.374
486.15 -1.06395 -463.284 -0.017438 -0.293387 2.002
484.922 -0.286542 -461.752 0.0077806 -0.0756522 0.21
486.883 -0.132464 -462.267 0.936869 2.91388 -0.634
485.784 -0.352323 -462.305 0.0098958 0.00496266 -0.124
486.43 -0.326054 -460.801 -0.546785 1.26354 0.656
483.657 1.08537 -463.508 2.18766 1.99276 2.368
485.284 0.129966 -463.112 0.03538 0.0621027 0.456
486.58 0.227008 -463.841 -0.01986 0.104656 0.178
485.928 -0.272223 -462.25 1.77184 2.71637 1.338
485.916 -0.27396 -462.336 1.82429 2.71844 1.624
485.92 -0.272665 -462.474 1.81697 2.68677 1.854
485.917 -0.274087 -462.474 1.82007 2.68512 1.83
486.244 1.00418 -461.216 -0.0357316 0.0914222 0.246
483.536 1.20058 -462.572 0.0276182 -0.020963 -0.11
484.116 -1.45099 -462.235 -0.0258194 0.027843 0.238
485.551 0.667349 -460.776 -0.0054718 -0.0209103 0.09
487.146 0.184998 -463.634 -0.0304534 0.0309665 -0.026
485.192 0.387993 -461.2 2.78556 2.57684 1.814
485.197 0.38484 -461.329 2.79467 2.58237 2.114
486.832 -0.966673 -462.37 -0.039541 0.00701606 0.314
484.922 -1.52867 -462.769 -0.0264714 0.0523154 0.368
485.92 0.168995 -460.994 0.250604 -0.0245849 -0.984
486.829 -0.305034 -461.159 3.53223 1.54542 1.588
485.524 -0.464168 -462.971 -0.0651064 0.112731 1.364
483.771 -0.74153 -462.725 -0.0951274 -0.0100662 0.704
484.977 1.27378 -462.543 1.79877 0.165021 2.182
485.743 1.25039 -463.088 0.490178 -0.13434 0.748
484.979 -1.05422 -461.974 3.54655 2.23874 1.5
485.398 -1.585 -463.637 0.005806 -0.0093948 0.086
487.062 0.8016 -462.181 1.52399 1.6778 0.428
487.149 0.221996 -461.089 3.43862 0.76668 0.442
485.578 -0.845063 -462.329 -0.0030422 -0.003823 0.284
486.913 0.158477 -461.91 -0.001272 0.00725174 0.088
484.57 -1.44445 -460.736 0.412908 0.0436906 -0.03
486.102 1.18021 -461.927 -6.98e-05 0.0218472 -0.032
486.114 1.17729 -462.055 0.022098 -0.021925 -0.256
483.934 -1.38824 -460.526 -0.0181348 -0.0809866 0.08
483.941 -1.37823 -460.609 -0.0126196 -0.004695 0.104
486.274 0.48154 -462.757 0.0212314 0.0417933 0.174
485.581 0.215248 -460.844 0.0049372 -0.0185308 -0.218
486.692 0.321386 -463.502 -0.0198852 -0.0161496 0.034
487.082 1.09289 -463.046 2.52203 2.60492 -0.182
486.568 0.680006 -461.357 -0.400501 2.40276 0.368
484.634 1.04982 -460.95 0.0455612 -0.051143 -0.494
484.986 -0.277623 -463.201 -0.0719036 0.0129031 0.18
486.311 0.684119 -463.577 -0.0846406 0.114165 0.308
486.348 0.638051 -463.313 -0.0024382 0.00792642 0.458
484.877 0.404717 -461.93 -0.072785 0.112244 0.918
484.864 0.408441 -461.798 -0.0345804 0.0767438 0.586
484.197 -0.228275 -463.837 -0.0328104 0.0371756 0.45
484.197 -0.237042 -463.933 -0.0531142 0.0154986 0.366
487.059 0.395138 -463.734 -0.115332 0.54091 0.84
487.108 0.442637 -463.411 -0.0340176 1.07884 1.2
486.323 0.0238158 -460.611 0.0139054 -0.0226865 0.196
486.136 0.0643763 -463.101 3.19799 3.21784 -0.208
486.485 -0.0202982 -463.982 -0.0146626 0.0156128 0.1
486.486 -0.0261257 -464.041 -0.0250066 0.0232541 0.174
486.298 0.753462 -462.474 0.172704 -0.107004 0.102
487.311 1.12261 -461.231 1.47385 1.08597 2.82
485.084 0.482814 -463.415 -0.19486 0.207944 -0.244
486.428 0.255689 -462.941 1.0077 1.37034 0.38
485.885 1.03738 -461.245 -0.0591186 0.0792866 0.334
485.882 1.02632 -461.116 -0.0364892 0.151046 -0.006
487.072 0.37666 -461.471 0.496304 1.03989 1.134
487.082 0.375513 -461.56 0.481917 1.0026 1.288
487.081 0.384844 -461.521 0.47785 1.04398 1.482
483.846 -1.49117 -463.461 -0.0144334 -0.0180014 -0.012
486.775 -1.17575 -462.957 -0.0260406 -0.0052404 0.036
484.996 -2.1732 -463.417 -0.0263286 -0.0006554 0.112
484.401 -0.412999 -461.184 3.15671 0.645563 1.012
484.399 -0.41887 -461.215 3.1252 0.680586 1.336
485.038 -0.527799 -462.268 0.260529 -0.665387 -0.02
483.996 -0.748221 -462.111 0.011245 -0.0158747 -0.236
487.112 2.60385 -494.887 0.120764 -0.0838504 0.45
484.813 3.73343 -495.392 0.169203 -0.0749536 -0.14
485.274 3.45708 -493.969 3.16257 3.20145 2.234
485.244 4.11138 -494.564 0.568504 -0.109051 -0.012
486.902 3.59988 -493.474 0.0759574 -0.128802 0.462
484.211 4.47991 -493.215 -0.717414 3.28545 3.312
486.965 3.24591 -493.959 0.175538 0.0183612 -0.008
483.561 3.39753 -495.55 -1.5719 3.42731 -0.798
487.15 4.26896 -494.731 2.39539 2.11152 2.976
484.289 4.97787 -496.308 0.146788 -0.0429706 0.142
484.29 4.96105 -496.418 0.164222 -0.0476026 0.312
484.998 3.09344 -495.873 0.427501 3.07889 0.596
485.002 3.082 -495.998 0.413889 3.09485 0.824
486.608 4.73414 -495.425 0.183432 3.56521 0.404
487.296 4.28923 -493.452 3.45605 -1.75259 -0.206
485.577 2.9657 -496.204 0.476289 1.29112 0.914
486.036 1.66106 -495.296 -0.286015 0.302274 1.214
485.535 3.73649 -494.063 -1.02738 -0.857344 1.942
486.755 2.71132 -495.873 0.59966 0.62076 -0.272
486.213 2.59582 -495.309 -1.07638 -1.63088 2.844
485.136 4.83593 -493.527 1.41266 1.97332 0.36
486.373 3.3184 -494.867 0.828176 -2.26269 2.128
485.957 4.95355 -495.185 -1.08253 0.140426 0.512
486.405 3.01079 -495.858 0.0702104 0.0380518 -0.012
485.14 1.71537 -495.166 0.245451 1.53189 3.988
484.725 4.02431 -493.877 4.11144 -0.773897 -1.166
484.731 4.01943 -493.943 4.09318 -0.757297 -0.952
485.935 2.23325 -493.205 -0.312654 -1.23581 3.176
484.395 4.2423 -493.498 -0.590782 1.61918 3.392
483.524 3.71456 -496.612 0.365562 -0.20804 -1.16
484.5 3.85803 -495.34 4.08236 1.7569 1.584
485.451 1.99962 -493.712 -0.0607096 -0.0123644 -0.02
487.211 2.59759 -495.337 4.09146 2.22974 1.836
486.19 4.76669 -493.812 -0.0610196 -0.509561 -0.654
485.051 3.30265 -494.824 1.40829 2.36505 2.202
484.666 4.34091 -494.536 0.0732622 -0.0362528 0.206
485.9 4.62775 -495.609 2.83783 1.29069 3.56
486.892 1.99696 -496.259 2.154 0.792737 0.896
487.14 2.36875 -494.306 1.40699 -1.3289 1.176
486.631 4.63863 -494.627 3.18358 1.42163 3.056
487.124 2.02932 -493.793 0.760834 3.07184 0.776
486.185 2.11039 -494.805 1.05461 -1.66617 -0.176
484.016 1.87419 -494.741 0.14954 0.0348714 -0.15
485.742 2.05237 -495.212 0.0375022 0.0142216 0.354
486.269 4.95571 -494.25 0.0635916 0.0543008 -0.428
483.893 4.10464 -494.719 -0.0022322 -0.309752 1.128
483.684 3.61708 -494.904 3.24711 1.04823 0.418
483.682 3.61361 -494.942 3.24859 1.05019 0.494
487.101 3.14176 -494.574 0.134706 0.0605614 -0.28
484.89 2.32029 -495.062 1.38133 -2.30194 -0.624
483.826 3.74086 -495.615 -0.615412 3.07388 1.87
485.56 3.50355 -494.201 0.111736 0.0881754 0.032
485.241 3.56372 -494.75 -1.61337 1.64117 1.398
484.082 3.59539 -495.29 2.57169 1.937 4.028
484.64 4.29201 -495.226 -0.751577 3.19663 -0.322
483.803 3.63266 -495.942 0.803138 2.14884 -0.058
485.653 4.65745 -493.625 2.54417 0.685513 2.314
486.715 4.50098 -493.555 -0.117893 1.16817 3.388
486.321 2.53037 -494.704 0.464602 2.85172 1
486.394 4.58317 -493.567 1.96865 -0.0394016 2.638
487.211 1.50123 -496.468 0.0062346 -0.015878 0.272
487.301 3.53729 -493.99 -1.66985 0.445325 2.31
486.916 3.07593 -496.06 2.92481 0.798488 -0.042
487.095 2.84931 -494.308 2.26641 2.0601 1.75
487.263 3.82115 -494.356 2.83403 4.0095 3.974
485.643 1.3561 -496.56 -1.29294 1.72263 -0.622
487.108 1.4803 -494.671 0.251387 0.510146 2.926
487.112 1.48827 -494.499 0.251181 0.527241 3.036
486.001 4.06806 -494.119 -0.327574 -0.233626 1.688
485.899 3.99951 -494.012 0.043721 0.0195596 1.688
486.9 3.21984 -494.51 0.25328 -0.0338306 -0.154
486.689 2.4891 -491.987 0.117441 -0.04014 0.772
485.464 2.717 -490.046 0.580961 3.12359 1.31
486.832 1.74019 -492.666 0.301254 3.0289 1.056
486.697 2.41342 -492.894 -0.245246 3.80518 3.376
486.405 3.6642 -490.965 2.21753 2.7275 2.94
486.031 3.71407 -489.777 0.0365756 0.164673 0.354
484.254 4.05669 -489.877 1.5203 -0.855834 3.718
483.947 2.88148 -490.814 2.75897 3.61057 1.46
485.513 1.67268 -489.507 1.40413 -0.210645 0.694
487.288 4.98656 -490.366 3.13504 0.300068 -0.734
486.118 3.6895 -490.719 4.15258 2.9955 1.34
486.719 2.1589 -490.349 0.011503 -0.0678018 0.002
485.931 2.0968 -489.632 2.52645 -0.0462972 2.13
486.749 4.76953 -491.382 0.921868 -0.91809 -0.072
487.179 1.29887 -492.925 0.0304586 0.11021 0.378
486.702 3.71318 -490.176 1.63597 0.508594 -0.922
486.845 3.34988 -491.243 0.13714 0.125524 0.224
486.872 4.30078 -492.572 2.78824 2.78512 -0.108
484.931 2.33616 -492.969 0.0301572 0.0971094 0.31
486.459 1.32296 -491.906 -0.1719 0.272441 -0.264
485.941 2.47192 -490.628 -0.0289488 0.172521 0.13
484.511 3.04436 -491.118 2.03258 2.76547 2.096
485.482 4.11514 -489.946 1.56103 -0.286631 1.244
487.033 2.02743 -490.958 0.389142 -0.271444 0
485.914 2.87155 -491.8 1.48684 0.170197 3.188
486.538 4.46577 -492.743 3.04528 -0.784313 1.266
485.004 5.03609 -491.01 0.56399 0.687798 2.038
485.157 2.05654 -491.71 0.766769 1.08383 1.92
487.183 3.3382 -491.126 2.86551 1.1104 3.508
487.216 3.33226 -491.295 2.93825 1.10534 3.184
487.304 2.6991 -490.885 1.68343 -0.268717 -0.654
487.138 2.74409 -492.06 2.13476 -0.201281 -0.562
485.653 2.62056 -492.721 3.47966 0.880773 2.714
483.898 1.99725 -490.195 3.69654 2.91104 -0.204
484.469 2.49283 -489.957 1.10563 -0.726343 3.686
487.258 1.93348 -490.828 1.57197 1.09851 3.644
484.876 2.48998 -492.029 3.71787 -0.537385 0.722
486.675 4.22934 -489.955 0.137286 0.0047274 0.254
486.72 3.96774 -490.503 2.09165 0.136768 -0.4
486.18 3.6949 -491.079 0.246557 -0.227487 -0.146
486.594 4.81337 -491.435 -0.0566166 0.0928354 0.348
483.883 1.69546 -489.824 2.95223 3.60753 1.092
486.389 2.43964 -490.189 -0.382632 0.956354 1.096
485.474 2.98688 -490.293 -0.357431 0.160403 0.34
485.842 1.81308 -490.974 0.152712 -0.249827 3.93
485.493 1.83476 -492.92 2.21554 0.312875 2.892
486.096 4.46685 -490.987 2.03362 -0.698079 -0.748
487.157 3.97088 -492.995 0.0468788 -0.0201714 0.112
487.155 3.96863 -493.009 0.0622614 -0.010379 0.126
487.049 3.57581 -492.118 -0.671267 -0.0422326 1.8
486.536 4.92642 -490.014 3.59545 0.183406 -0.69
486.859 4.4482 -490.918 1.24 0.978279 0.57
486.654 3.42859 -490.673 0.0244324 -0.0968922 0.386
486.823 4.17972 -490.416 0.0820678 0.050051 0.134
486.282 3.83595 -491.827 3.08414 -0.0348558 0.614
486.11 5.04707 -489.712 -0.323902 1.51408 -0.34
486.108 5.0379 -489.755 -0.29109 1.53748 -0.386
484.926 4.59817 -492.933 1.94237 -0.402483 3.116
486.925 3.81279 -491.772 -0.005842 1.27047 2.784
486.211 3.67774 -490.699 0.311946 -0.294779 1.41
486.57 4.03216 -491.849 1.8513 0.714058 3.598
486.507 3.9948 -491.704 2.04866 0.858557 3.224
486.677 4.86553 -491.231 1.81942 3.19649 3.578
486.055 4.761 -491.021 1.85225 3.45005 3.888
486.132 3.6187 -490.447 0.131793 0.106184 0.466
486.893 1.67816 -490.236 0.625012 1.59475 1.188
485.868 3.48154 -491.751 0.475621 2.9844 1.596
485.864 3.47982 -491.719 0.45421 2.99678 1.914
483.844 2.72761 -492.346 0.827218 2.53746 3.492
483.847 2.72917 -492.369 0.824539 2.55075 3.364
485.41 4.38532 -492.473 0.994807 1.53081 0.586
485.976 4.47605 -491.471 0.0172676 -0.0362382 0.962
485.982 4.47993 -491.615 0.0029084 -0.0644456 1.394
485.976 4.47415 -491.49 0.023287 -0.0383128 0.918
485.797 4.56787 -489.522 0.307694 -0.404762 2.07
487.22 2.95775 -491.651 2.51058 -0.908622 1.194
486.8 3.85729 -492.279 1.29802 2.94533 2.516
484.69 4.48942 -492.514 3.11162 0.0339486 3.546
484.695 4.48073 -492.584 3.10796 0.0316316 3.424
487.115 4.51038 -490.353 1.62997 3.40919 2.294
486.875 3.71368 -492.057 0.0274892 0.169422 0.2
484.518 4.78169 -490.957 2.7055 1.64036 -0.504
485.085 3.33958 -489.659 0.105758 0.0143546 0.962
487.2 3.24729 -490.397 0.0609462 0.340724 1.338
486.74 4.80685 -492.524 2.63142 0.462792 0.496
486.468 2.81839 -492.65 0.0419858 -0.0237232 -0.176
486.909 4.50684 -490.967 1.60246 -1.30668 2.268
484.98 2.53765 -489.865 0.468912 3.26935 3.5
487.192 3.12423 -492.691 -0.233779 2.94167 3.604
486.961 4.11443 -492.349 3.52179 2.1994 2.326
486 3.2331 -492.564 0.119289 -0.0159616 -0.08
487.239 2.9233 -491.045 4.07454 2.31804 1.438
484.64 1.90056 -491.774 2.69682 2.46303 3.964
485.163 3.98525 -491.61 3.74066 3.15737 1.76
484.753 4.13731 -492.256 0.178283 -0.0016568 0.368
486.881 4.07611 -491.7 0.0726834 0.0241648 -0.412
487.166 4.4235 -492.904 0.0413016 0.0531778 0.178
484.121 2.43145 -491.253 0.0470326 0.0448342 0.412
485.979 4.12663 -486.137 1.18299 -0.850025 -0.56
486.704 4.95643 -488.791 2.0791 1.85144 2.498
486.739 4.84692 -489.455 -0.362851 0.682743 1.588
487.21 2.63567 -487.293 -0.134761 -0.238398 0.776
487.21 2.63582 -487.291 -0.133841 -0.234283 0.802
485.882 3.58984 -488.4 -0.0006102 0.181379 0
485.615 1.38177 -486.616 -0.0812492 2.96309 1.616
485.668 1.38116 -486.723 0.11322 2.98181 1.424
485.672 1.37918 -486.76 0.105795 2.98307 1.442
485.148 4.29255 -489.063 0.147979 0.076954 -0.17
487.135 2.70947 -486.238 0.23854 3.69157 -0.712
486.428 4.65718 -489.482 0.0458796 2.22616 0.508
486.539 2.71793 -487.94 0.0280472 0.0906106 -0.426
485.316 2.89231 -488.958 0.0938954 0.0369068 -0.336
487.309 1.9336 -486.291 -0.166321 3.00095 0.236
485.963 2.01754 -489.432 2.43009 0.183599 2.104
485.963 2.01533 -489.45 2.42369 0.185535 2.146
485.476 3.84867 -487.808 1.28525 3.39347 -0.81
485.431 1.65402 -488.733 1.48422 2.43659 2.836
486.869 3.51689 -487.885 0.0937802 0.127291 0.342
486.816 3.57808 -488.957 -0.0422704 0.023614 -0.03
486.889 4.46513 -486.704 0.0139046 0.101407 1.984
485.884 3.60579 -488.123 -0.215722 0.404546 0.162
485.353 3.16809 -488.858 1.8935 2.16042 3.186
486.492 4.68526 -489.064 -0.286862 0.286602 -0.212
485.764 2.58593 -487.139 1.01662 0.442986 0.682
486.257 4.58276 -487.649 1.09691 1.76968 1.82
484.801 2.1863 -486.649 0.0504946 -0.0632882 -0.224
485.196 2.00933 -486.221 0.368847 -0.0916464 2.158
485.948 4.07143 -486.12 2.03072 1.70379 0.948
484.36 3.73228 -488.826 0.208078 0.318643 0.14
487.277 2.57745 -488.736 0.0384978 -0.0522408 0.004
486.924 2.59649 -487.073 0.705746 -0.908146 3.072
486.379 1.39835 -487.825 0.927809 -0.78608 2.824
484.963 2.42897 -488.483 -0.0755384 -0.129819 0.11
484.711 1.36461 -485.874 0.0775988 0.119617 0.104
483.999 1.38564 -489.154 0.0338656 -0.0519698 0.572
485.497 5.00459 -486.82 1.41843 1.04332 2.354
485.499 4.99831 -486.849 1.44228 1.03222 2.282
485.965 4.46661 -489.15 1.90456 0.774424 0.612
483.943 4.16514 -489.176 0.15092 1.40389 2.194
483.95 4.15474 -489.298 0.141149 1.42978 2.49
484.738 2.27418 -488.769 0.0714636 0.143846 -0.798
484.482 2.05003 -488.136 0.063862 0.0741848 -0.376
485.512 1.79714 -487.901 0.0484752 0.118911 -0.202
483.915 3.94902 -487.315 0.14175 0.0507866 -0.054
487.012 3.27828 -488.72 -0.0929576 0.744022 -0.756
483.743 4.32874 -488.95 1.97505 0.0509646 -0.302
486.396 4.48495 -488.452 -0.019723 0.00502 0.206
486.198 3.38322 -489.462 0.111243 -0.0601052 0.408
486.14 4.25539 -486.871 1.3426 1.54256 0.912
485.073 4.83019 -485.98 -0.348427 -0.0104922 0.644
485.072 4.82919 -485.985 -0.343082 -0.0151164 0.586
483.529 5.00937 -486.567 -0.394953 0.915983 0.884
486.955 2.946 -487.143 1.67683 0.493043 0.956
487.043 2.76682 -487.551 1.3442 1.26915 1.996
487.055 2.76457 -487.654 1.32957 1.22455 1.984
487.029 2.75247 -487.387 1.37317 1.26861 1.966
487.052 2.76985 -487.612 1.32639 1.24662 2.104
484.727 1.73272 -485.906 0.0364552 0.0028038 0.054
487.299 3.59958 -488.567 0.432884 2.84437 1.73
486.39 4.41086 -487.658 0.283559 -0.187167 3.578
487.204 3.47052 -487.357 0.145634 -0.617577 1.276
487.208 3.45925 -487.49 0.137051 -0.579173 1.718
487.019 1.64955 -489.219 2.92933 3.46896 3.022
486.282 3.39375 -488.029 2.76943 -0.692663 2.946
487.271 1.49348 -489.223 3.00997 2.10614 1.162
484.339 3.66813 -486.923 0.112343 0.124346 0.298
486.829 2.44989 -486.745 0.0872932 0.0706314 -0.25
485.892 4.47782 -487.477 2.1066 0.836252 3.096
485.508 4.95385 -486.05 -0.259606 -0.306273 -0.034
485.496 4.99929 -487.428 -0.396789 -0.0382786 -0.006
484.833 2.91197 -486.928 1.26436 -0.461942 2.13
486.265 1.31577 -488.687 -0.0408908 0.111621 -0.118
483.631 2.5319 -487.565 3.61019 1.12256 -0.514
483.636 2.51886 -487.664 3.61479 1.1357 -0.338
485.416 2.96259 -486.959 0.0312762 3.08871 0.548
486.711 3.78331 -489.245 0.423081 0.192498 0.182
486.88 4.46538 -486.106 3.17722 2.5232 2.634
484.52 3.12042 -487.909 0.0944606 0.065843 0.862
484.128 1.47654 -487.348 1.65967 2.3687 0.956
486.117 2.86361 -486.618 3.52516 2.80737 0.474
486.852 5.04262 -487.76 -0.124492 1.2348 0.602
487.2 4.9794 -489.292 1.65758 0.493231 0.776
486.201 1.67503 -486.898 3.12743 3.59426 2.536
486.433 3.6866 -489.267 0.67128 -1.01686 3.226
484.187 3.66047 -488.298 0.154062 -0.0635206 -0.39
487.23 2.47419 -487.864 0.0980002 0.221513 -0.428
485.324 2.8282 -487.161 0.13083 1.20299 1.008
485.582 4.09883 -486.327 0.116107 0.259255 0.092
484.061 4.29977 -488.502 3.26198 0.521165 3.214
486.159 2.1276 -487.522 1.00591 0.509463 0.524
485.16 4.09716 -489.12 0.170074 -0.0902934 0.302
487.294 4.29953 -486.7 3.36044 -0.873178 2.998
484.011 5.04399 -488.094 2.28692 2.75025 -0.578
486.757 4.79274 -486.945 -0.0565492 0.291864 1.818
486.811 3.56804 -488.954 0.705538 1.36517 0.418
486.772 2.66817 -489.324 0.0462202 0.0216872 0.244
484.336 4.55118 -489.025 0.269128 -0.0049384 1.704
484.199 4.42561 -487.09 0.061172 0.0505232 1.336
484.331 4.54823 -488.942 0.260093 0.0354696 1.714
486.032 4.82173 -486.283 2.74784 3.34348 0.27
486.027 4.8127 -486.101 2.72339 3.39941 0.212
485.167 4.53545 -486.554 3.35866 -0.987746 1.008
487.007 3.69661 -487.904 -0.41442 -0.145177 2.502
485.188 2.81448 -486.612 0.184298 0.111465 -0.58
483.748 1.63872 -483.871 0.0213686 -0.0681118 0.056
486.898 4.00252 -484.53 0.592306 -0.962141 1.288
485.11 1.2985 -482.81 0.024398 0.122257 0.042
486.01 1.92766 -485.848 0.226778 0.380404 -0.136
485.649 2.28457 -482.274 0.0818072 -0.089025 0.002
487.075 3.24992 -482.663 -0.274534 -0.0732542 -0.446
486.801 4.09769 -482.349 0.0266402 -0.0520014 -0.018
486.805 4.09851 -482.374 0.0320444 -0.0363062 0.008
486.546 2.19217 -483.286 0.0226946 -0.0126608 -0.218
485.155 4.03698 -483.296 -0.018323 -0.0592168 0.496
486.192 3.894 -482.462 0.003481 -0.138457 0.246
486.272 1.4382 -482.408 -0.0029658 -0.0776924 0.076
485.186 4.64483 -482.461 0.0796682 -0.0843504 -0.068
485.187 4.64442 -482.467 0.074449 -0.078653 -0.002
